ply
format ascii 1.0
element vertex 1132
property float x
property float y
property float z
property uchar red
property uchar green
property uchar blue
end_header
22.557049 -2.498553 93.366300 255 255 255
-3.570042 -8.172319 69.570162 255 255 255
-6.825167 -7.384591 70.282122 255 255 255
-8.368948 -4.466118 54.176676 255 255 255
-6.847159 -6.824851 65.355157 255 255 255
0.120863 -0.156020 68.716128 255 255 255
-7.865101 -8.175646 70.515071 255 255 255
-6.073209 -5.883628 62.772733 255 255 255
-2.980589 -7.466841 69.436656 255 255 255
-1.537685 -8.057068 69.122393 255 255 255
10.589457 -10.692899 119.043436 255 255 255
1.616397 0.933001 37.575238 255 255 255
5.409608 -10.892184 83.381462 255 255 255
-6.394748 -6.343788 65.253099 255 255 255
-5.603818 -6.328963 65.078999 255 255 255
-3.515207 -7.091101 69.552439 255 255 255
-2.309979 -7.068510 69.287142 255 255 255
-10.215251 -4.836573 56.675927 255 255 255
27.737802 -8.961358 78.458402 255 255 255
-9.466061 -4.857401 53.500038 255 255 255
-7.968034 -4.268628 50.121592 255 255 255
34.848318 -10.909641 90.705223 255 255 255
-3.964224 -7.253810 69.651963 255 255 255
-4.190219 -7.258066 69.701831 255 255 255
36.825636 -10.872578 90.269974 255 255 255
-8.323668 -4.476769 53.424786 255 255 255
-9.557904 -4.353380 54.437684 255 255 255
5.585688 -9.052557 83.333093 255 255 255
5.792484 -8.832607 83.286208 255 255 255
-2.531568 -7.304133 69.337130 255 255 255
-2.757536 -7.308348 69.386749 255 255 255
-9.694480 -4.483113 56.559483 255 255 255
-2.450334 -5.729746 64.381933 255 255 255
-9.078827 -4.119361 54.331051 255 255 255
-9.887157 -4.437627 56.601650 255 255 255
22.205717 -9.907406 83.997808 255 255 255
0.922939 -6.192240 96.291493 255 255 255
20.299180 -1.156764 101.091455 255 255 255
-2.898763 -0.015150 65.110837 255 255 255
-7.164650 -8.355606 81.138385 255 255 255
2.786353 -7.348854 75.089988 255 255 255
-3.781212 -6.294153 71.095815 255 255 255
-3.660425 -6.210641 71.066371 255 255 255
-5.186272 -7.198456 73.998842 255 255 255
24.327242 -1.571994 79.170136 255 255 255
6.271261 -12.930546 97.003415 255 255 255
18.330680 -2.440543 80.494533 255 255 255
-9.591594 -4.894105 54.447916 255 255 255
-8.756724 -4.878456 54.264143 255 255 255
-4.256764 -7.722252 69.718901 255 255 255
-3.654151 -7.710957 69.586253 255 255 255
-9.155609 -4.705903 54.351014 255 255 255
4.954569 -6.560471 74.258110 255 255 255
5.980859 -7.640870 83.238525 255 255 255
5.335839 -7.004876 83.377351 255 255 255
4.366964 -5.202781 68.770006 255 255 255
-9.066874 -4.749248 54.331717 255 255 255
5.395264 -10.136318 83.380663 255 255 255
1.286292 -7.353036 98.071405 255 255 255
-5.088267 -7.583504 69.901004 255 255 255
-4.862287 -7.579268 69.851261 255 255 255
15.773987 -6.406391 94.879181 255 255 255
-10.636718 -5.359181 57.236070 255 255 255
-8.748107 -4.869293 54.262199 255 255 255
-9.707472 -4.347182 54.470560 255 255 255
5.806389 -9.516863 85.587117 255 255 255
6.064909 -9.241970 85.528798 255 255 255
-10.065643 -4.568340 57.106282 255 255 255
29.273234 -9.212026 80.422270 255 255 255
-11.590053 -4.536903 57.441523 255 255 255
5.912576 -8.164600 85.556423 255 255 255
19.974723 -4.936012 116.948334 255 255 255
19.124145 -2.516041 82.620266 255 255 255
0.114856 0.024948 62.144546 255 255 255
0.136379 -0.043616 75.283958 255 255 255
-4.513637 -6.234330 63.195676 255 255 255
-9.066528 -4.767243 54.331725 255 255 255
3.637964 -6.223248 96.194964 255 255 255
25.520138 -0.988957 100.372821 255 255 255
-6.874900 -8.600524 76.871544 255 255 255
-9.591769 -4.885108 54.447917 255 255 255
-2.243330 -7.294272 68.178349 255 255 255
-4.704004 -7.340395 68.719996 255 255 255
-4.085405 -7.508811 68.584658 255 255 255
-7.006578 -5.171117 56.436371 255 255 255
-10.242544 -4.511645 57.144907 255 255 255
-2.860194 -7.215799 68.313549 255 255 255
17.186237 -6.546164 102.236459 255 255 255
-8.642654 -4.867318 54.238997 255 255 255
-6.552902 -7.194999 69.125922 255 255 255
-9.549282 -4.344216 54.435729 255 255 255
-7.297238 -5.296586 56.500979 255 255 255
-7.161263 -7.566485 69.261833 255 255 255
-7.261097 -6.938245 69.280511 255 255 255
1.741895 0.998962 38.505691 255 255 255
-6.380577 -7.011757 69.087161 255 255 255
30.862517 -9.587223 80.074047 255 255 255
5.103718 -7.234599 85.729524 255 255 255
0.165205 0.132178 67.609440 255 255 255
-3.918196 -7.055618 68.545609 255 255 255
16.486415 -6.739239 102.390541 255 255 255
-0.182905 -0.054378 67.687008 255 255 255
-5.696987 -8.188627 73.734742 255 255 255
-5.677508 -6.998560 68.932287 255 255 255
5.226068 -6.969455 74.200515 255 255 255
-7.526423 -6.853184 69.338331 255 255 255
25.301840 -1.455080 81.255477 255 255 255
2.227766 0.877734 40.202375 255 255 255
-2.875713 -8.093487 75.988977 255 255 255
1.827997 0.951915 38.903700 255 255 255
32.789655 -13.454853 98.838592 255 255 255
5.560675 -10.466637 85.646150 255 255 255
14.695349 -5.236509 91.823414 255 255 255
7.852532 0.878401 34.997689 255 255 255
18.454823 -1.261003 87.987971 255 255 255
-0.397059 0.270445 75.399847 255 255 255
4.930349 0.843494 37.000209 255 255 255
-10.346058 -5.233712 57.171462 255 255 255
56.146084 -11.937022 93.692598 255 255 255
8.315351 0.892634 37.059927 255 255 255
-5.894930 -6.593436 66.582007 255 255 255
-4.845784 -6.228584 64.235053 255 255 255
3.131640 -4.327086 92.537825 255 255 255
-2.232914 -6.915991 68.173964 255 255 255
36.090361 -15.586415 117.291663 255 255 255
-8.531098 -4.192169 52.507066 255 255 255
-3.533897 0.057995 47.512975 255 255 255
-0.142583 0.334919 77.260240 255 255 255
-7.613279 -6.908822 69.357732 255 255 255
20.392321 -8.319484 120.708983 255 255 255
32.255209 -10.262285 86.160710 255 255 255
29.117839 -9.506044 118.793962 255 255 255
-0.147410 -0.071716 67.679289 255 255 255
6.239105 -10.569900 91.886467 255 255 255
21.211147 -2.727970 88.551233 255 255 255
49.789503 -14.789546 114.273363 255 255 255
27.686929 -3.591848 119.077846 255 255 255
-10.169847 -4.515030 55.531582 255 255 255
-12.638643 -8.270771 80.054697 255 255 255
33.883890 -10.496895 117.750505 255 255 255
-9.646402 -4.302683 55.415301 255 255 255
5.286525 -7.799759 76.108279 255 255 255
26.134034 -0.767306 61.900514 255 255 255
4.862885 -6.322440 76.193758 255 255 255
1.704191 0.935817 38.057929 255 255 255
21.352758 -0.925007 88.510641 255 255 255
28.316671 -8.980970 118.967489 255 255 255
-9.179900 -4.563984 55.314018 255 255 255
5.397856 -6.717483 76.078120 255 255 255
-5.760431 -5.848892 62.555098 255 255 255
1.710641 1.010535 39.016935 255 255 255
31.831104 -13.505880 118.217911 255 255 255
5.271157 -6.989905 76.107422 255 255 255
5.760047 -8.502625 95.739281 255 255 255
7.910476 0.820679 36.693012 255 255 255
27.484760 -6.836193 119.139306 255 255 255
-9.120879 -4.112975 54.157710 255 255 255
-8.894900 -4.108739 54.107967 255 255 255
-3.166259 -6.496672 69.974534 255 255 255
23.488177 -1.456718 77.394780 255 255 255
23.477398 -2.908094 104.027595 255 255 255
26.124087 -3.398581 103.447829 255 255 255
3.476295 -5.173304 108.439664 255 255 255
5.673175 -7.731709 81.347550 255 255 255
0.176489 0.023391 61.218186 255 255 255
-3.625542 0.089968 47.855656 255 255 255
17.748949 -6.796143 105.308333 255 255 255
17.226585 -7.075900 105.423753 255 255 255
1.241541 -5.834400 82.312465 255 255 255
5.307971 -7.018398 81.423952 255 255 255
25.424973 -1.600446 76.969392 255 255 255
21.906146 -8.937855 84.437338 255 255 255
27.184561 -0.661851 63.265990 255 255 255
9.622088 -9.378908 107.109947 255 255 255
22.386965 -1.038196 104.257730 255 255 255
36.913000 -2.116161 101.067306 255 255 255
22.553943 -0.637357 56.298084 255 255 255
21.316036 0.161038 47.438394 255 255 255
20.523127 -0.691244 51.420745 255 255 255
19.022359 0.138504 45.090827 255 255 255
23.498851 -0.403605 56.088803 255 255 255
21.391763 -0.551119 56.553183 255 255 255
38.241014 -2.631332 100.776832 255 255 255
28.335695 -8.758091 102.989270 255 255 255
1.197284 -7.925984 85.563156 255 255 255
0.182020 -7.415409 80.222167 255 255 255
10.300303 -7.088883 91.378417 255 255 255
6.876816 -9.792656 114.450698 255 255 255
-3.017347 -7.132613 83.584634 255 255 255
10.417108 -7.029577 91.349445 255 255 255
7.047598 -10.423683 114.406669 255 255 255
6.697917 -8.521244 104.973079 255 255 255
2.161116 -7.566421 86.696282 255 255 255
-1.611559 -5.629018 99.906806 255 255 255
0.123387 -7.646306 82.800711 255 255 255
1.303133 -7.518322 82.506994 255 255 255
-1.061718 -5.756450 89.768064 255 255 255
30.190266 -10.305808 121.974585 255 255 255
-2.098674 -6.775118 94.469200 255 255 255
7.144882 -8.804233 114.386188 255 255 255
22.469172 -2.055278 110.582783 255 255 255
22.459768 -3.585249 110.581570 255 255 255
9.129618 -9.748511 127.224581 255 255 255
8.388105 -11.040123 127.406377 255 255 255
0.344684 -7.114840 89.414405 255 255 255
8.180511 -10.714882 127.458869 255 255 255
-0.093634 -8.703772 85.883069 255 255 255
-1.018947 -7.322732 89.753764 255 255 255
5.123635 -10.862245 114.885136 255 255 255
-0.052915 -6.292453 80.283328 255 255 255
36.864792 -11.177212 140.311975 255 255 255
10.414726 -5.554718 86.908393 255 255 255
1.245822 -7.778997 85.551401 255 255 255
37.889484 -14.963373 140.047802 255 255 255
0.335063 -8.706323 85.776224 255 255 255
0.638060 -5.909895 85.707212 255 255 255
7.178709 -8.984437 114.377339 255 255 255
9.802276 -6.441660 88.725971 255 255 255
-1.198471 -5.971194 91.468523 255 255 255
22.628357 -1.732219 110.543862 255 255 255
7.495743 -8.554316 114.299329 255 255 255
7.601861 -8.338943 114.273383 255 255 255
1.303245 -7.500322 82.507008 255 255 255
22.198561 -3.457692 110.646964 255 255 255
9.866477 -6.644513 88.709236 255 255 255
-1.142944 -7.591571 91.451048 255 255 255
0.369677 -6.588049 91.076408 255 255 255
-0.088785 -6.585306 91.190542 255 255 255
9.407782 -9.938304 130.488830 255 255 255
7.028161 -10.137406 116.711136 255 255 255
9.800201 -6.779154 88.725704 255 255 255
2.766646 -8.306531 83.166008 255 255 255
29.685029 -10.285481 82.182868 255 255 255
21.881786 -10.988579 84.078057 255 255 255
2.590604 -8.007163 83.208292 255 255 255
21.530352 -2.952343 100.795293 255 255 255
22.580205 -3.038564 100.540584 255 255 255
22.055447 -3.040453 100.667965 255 255 255
21.705609 -3.041712 100.752886 255 255 255
2.180214 -7.408636 83.307013 255 255 255
21.532374 -3.492339 100.795611 255 255 255
2.956905 -6.645155 78.678946 255 255 255
3.635342 -8.084252 88.502797 255 255 255
2.645991 -7.226958 83.193679 255 255 255
-1.137215 -6.389893 79.672359 255 255 255
31.063023 -10.415521 81.848572 255 255 255
8.236710 -10.988293 117.349358 255 255 255
13.665897 -5.837789 93.197773 255 255 255
12.221946 -5.330447 87.694770 255 255 255
12.255476 -9.995948 136.345883 255 255 255
1.526710 -5.526827 89.010810 255 255 255
11.431763 -5.558667 86.606534 255 255 255
14.549081 -7.117503 102.496145 255 255 255
9.809770 -10.658628 116.967024 255 255 255
35.487541 -13.017256 130.710362 255 255 255
12.693657 -6.458436 93.434701 255 255 255
9.592639 -8.715445 117.017306 255 255 255
8.549543 -10.447164 117.272611 255 255 255
9.493298 -10.227764 117.043198 255 255 255
13.444177 -6.687164 93.252865 255 255 255
9.593803 -9.039395 117.017022 255 255 255
13.219570 -6.765116 93.307502 255 255 255
30.735554 -10.551700 81.928265 255 255 255
12.695101 -6.844148 93.434928 255 255 255
9.699967 -9.363015 116.991737 255 255 255
9.806940 -9.902633 116.966579 255 255 255
1.676346 -7.192392 96.110110 255 255 255
2.979562 -7.986344 75.044044 255 255 255
3.276611 -7.940013 78.603281 255 255 255
3.357713 -7.052249 74.950854 255 255 255
32.465637 -11.813128 131.442087 255 255 255
28.379721 -8.863761 112.456720 255 255 255
22.750070 -1.687943 100.497329 255 255 255
32.460583 -10.463138 131.441292 255 255 255
3.277217 -8.102011 78.603376 255 255 255
12.920864 -7.074765 93.380473 255 255 255
0.605272 -6.636317 93.284714 255 255 255
6.553648 0.454712 65.589747 255 255 255
3.982431 -8.703875 93.967600 255 255 255
8.732137 -10.980980 120.557562 255 255 255
22.381060 -1.239269 100.586229 255 255 255
4.083720 -7.122271 86.014845 255 255 255
15.054667 -6.665680 102.372744 255 255 255
12.261861 -5.998724 86.910168 255 255 255
22.073075 -3.076389 100.663740 255 255 255
13.067087 -5.701121 91.757685 255 255 255
22.597832 -3.074500 100.536359 255 255 255
8.471821 -11.521987 120.622087 255 255 255
21.442960 -2.970657 100.816534 255 255 255
-3.938265 -6.442331 72.620902 255 255 255
0.650204 -6.375828 94.772733 255 255 255
-3.033431 -5.956138 70.448202 255 255 255
32.855495 -11.659906 86.963228 255 255 255
8.240496 -8.742226 104.029906 255 255 255
3.005792 -8.077856 75.710237 255 255 255
3.859978 -7.431651 86.069619 255 255 255
10.044531 -11.111255 120.239191 255 255 255
26.884381 -10.048743 80.484489 255 255 255
8.735175 -6.581332 70.618666 255 255 255
29.358431 -10.039903 79.884277 255 255 255
5.002790 -8.012160 91.929057 255 255 255
35.212186 -10.391416 86.389272 255 255 255
29.657804 -9.961615 79.811146 255 255 255
12.371119 -6.693632 91.928108 255 255 255
2.525883 -7.561964 80.449315 255 255 255
1.004939 -5.744775 86.760116 255 255 255
1.530276 -5.897152 86.632653 255 255 255
2.651914 -6.999142 75.794622 255 255 255
-2.706158 0.142690 63.874969 255 255 255
-3.700398 -6.204008 70.610541 255 255 255
3.178243 -7.417250 75.667489 255 255 255
23.104359 -1.576608 81.389352 255 255 255
0.998694 -6.014572 94.687601 255 255 255
20.436675 -9.094920 78.878017 255 255 255
-2.667962 -0.050029 63.866029 255 255 255
2.991303 -8.329121 105.303461 255 255 255
3.236101 -7.297041 75.653265 255 255 255
2.313954 -6.909841 94.369679 255 255 255
0.628668 -5.360412 86.850876 255 255 255
2.588950 -6.886733 80.432995 255 255 255
-3.747539 -6.351439 70.622134 255 255 255
26.521692 -1.872664 88.486019 255 255 255
7.822712 -9.283733 104.132128 255 255 255
2.055900 -6.126708 86.505581 255 255 255
10.171730 -10.030853 120.207223 255 255 255
27.167599 -10.870380 88.342709 255 255 255
21.259684 -9.451848 81.848918 255 255 255
3.959218 0.513617 54.330800 255 255 255
52.887878 -15.097245 105.883303 255 255 255
2.563677 0.614762 48.221372 255 255 255
6.553704 0.439712 65.589755 255 255 255
24.630602 -10.699513 88.958276 255 255 255
8.477861 -8.957231 109.761958 255 255 255
6.836139 0.602562 45.017451 255 255 255
20.173696 -9.395804 80.791552 255 255 255
-2.574674 0.165411 65.284085 255 255 255
-2.099003 -0.011571 63.067373 255 255 255
22.490575 -3.146807 103.336378 255 255 255
-2.956499 0.213128 65.376697 255 255 255
13.277125 -5.736365 91.706753 255 255 255
12.857319 -5.737877 91.808658 255 255 255
19.038130 -2.691610 90.303784 255 255 255
2.674731 -7.568795 85.036464 255 255 255
2.588959 -8.019131 85.058123 255 255 255
-1.699266 -7.314564 86.097979 255 255 255
0.654400 -5.236074 85.523544 255 255 255
30.190320 -9.658491 124.593690 255 255 255
3.810356 -7.204705 84.760260 255 255 255
13.068839 -6.169117 91.757960 255 255 255
12.439130 -6.171384 91.910817 255 255 255
1.704254 -5.322295 85.268835 255 255 255
5.100218 -8.249816 93.695356 255 255 255
1.104386 -6.212192 94.662241 255 255 255
2.572020 0.640572 48.381443 255 255 255
61.355532 -17.466325 117.040430 255 255 255
3.984272 -6.934099 84.717804 255 255 255
-1.160840 -6.009934 79.360550 255 255 255
0.580433 -6.430103 94.789986 255 255 255
1.402262 -1.675099 94.583141 255 255 255
2.940818 -8.557869 84.973520 255 255 255
13.279955 -6.492359 91.707199 255 255 255
32.999126 -12.348391 123.915917 255 255 255
9.559321 -12.252779 129.605484 255 255 255
2.819549 -7.924190 78.397229 255 255 255
10.782469 -11.888452 129.308687 255 255 255
12.336200 -6.711757 91.936612 255 255 255
8.603256 -8.191867 106.715270 255 255 255
3.511269 -7.949918 80.210706 255 255 255
-5.202890 -7.644479 80.344032 255 255 255
35.230148 -10.517352 86.385100 255 255 255
8.736467 -8.731393 106.683743 255 255 255
14.577514 -2.674251 90.322720 255 255 255
0.032961 -6.680978 89.493101 255 255 255
21.961158 -2.491353 84.037931 255 255 255
-1.107479 -7.366198 80.543649 255 255 255
14.524827 -1.773921 90.337944 255 255 255
10.772317 -6.071673 91.263147 255 255 255
-0.935941 -6.244173 86.098705 255 255 255
15.086197 -0.346613 66.806231 255 255 255
-0.281084 -6.625109 89.571497 255 255 255
10.708567 -6.971310 91.276944 255 255 255
8.172545 -12.010857 127.457842 255 255 255
7.495851 -8.536316 114.299343 255 255 255
22.286220 -3.404213 110.625242 255 255 255
21.500276 -3.399537 110.821125 255 255 255
-2.710596 -6.954435 83.508600 255 255 255
11.058613 -6.853390 91.189980 255 255 255
5.820593 -11.136396 114.710804 255 255 255
9.521334 -5.981411 87.130050 255 255 255
0.433950 -8.117810 85.752947 255 255 255
-0.840254 -8.135582 83.039731 255 255 255
10.302147 -6.788889 91.378655 255 255 255
7.482574 -10.696275 114.297631 255 255 255
3.696731 -9.660553 105.718381 255 255 255
-0.796620 -6.534834 86.736845 255 255 255
5.386170 -10.773805 114.819913 255 255 255
0.691290 -7.604683 82.659276 255 255 255
-6.691567 -6.449209 76.167391 255 255 255
0.766509 -6.685342 89.310277 255 255 255
31.215086 -14.167517 108.374984 255 255 255
1.001616 -6.724583 99.253008 255 255 255
36.204860 -11.983300 140.474569 255 255 255
36.441974 -16.175101 120.402901 255 255 255
7.177381 -9.200433 114.377168 255 255 255
11.000236 -6.852182 94.379446 255 255 255
8.612707 -11.418604 130.683536 255 255 255
31.410125 -10.744209 125.003568 255 255 255
0.897159 -6.483522 96.898348 255 255 255
11.675796 -6.547626 94.211792 255 255 255
2.166544 -7.522480 85.996074 255 255 255
11.377339 -6.391562 94.286535 255 255 255
21.569810 -3.453951 110.803669 255 255 255
7.383647 -9.741669 114.324505 255 255 255
-0.009319 -7.924521 82.833137 255 255 255
-1.160681 -6.686269 80.092194 255 255 255
-3.937142 -5.986141 87.520796 255 255 255
11.428126 -7.147322 91.697868 255 255 255
16.800777 -0.802060 64.742446 255 255 255
10.327208 -9.538765 130.260621 255 255 255
8.402837 0.501958 45.962510 255 255 255
-2.552398 -0.234801 65.746272 255 255 255
27.757942 -10.317645 109.773873 255 255 255
8.196948 0.471626 45.826428 255 255 255
15.102561 -6.435213 99.997479 255 255 255
-1.721212 -0.210092 67.379135 255 255 255
-2.689923 -0.096798 64.174122 255 255 255
-2.756529 0.172964 64.189885 255 255 255
31.325384 -9.986914 128.172614 255 255 255
1.635856 -7.023727 103.267543 255 255 255
21.561940 -2.991970 98.425019 255 255 255
21.905518 -1.370709 98.338564 255 255 255
33.444180 -15.379163 127.664958 255 255 255
34.221210 -12.676359 127.472296 255 255 255
7.240688 -8.983563 101.909978 255 255 255
-0.472082 -4.582253 68.750397 255 255 255
-1.581598 -6.190987 81.712414 255 255 255
-2.313977 -7.122982 88.173364 255 255 255
3.592093 -7.776725 86.740721 255 255 255
2.805456 -7.914533 86.931697 255 255 255
2.507398 0.582259 48.004984 255 255 255
34.233338 -15.916323 127.474205 255 255 255
14.577931 -6.437156 100.125457 255 255 255
30.273416 -9.450565 128.425741 255 255 255
8.546856 0.445354 47.504784 255 255 255
12.697138 -10.323845 132.693464 255 255 255
29.489311 -10.263389 128.617290 255 255 255
3.853455 -7.505757 86.676696 255 255 255
35.543203 -15.371606 127.155436 255 255 255
18.811506 -8.126882 83.046572 255 255 255
15.784560 -5.572773 83.777499 255 255 255
32.122187 -12.683916 127.981818 255 255 255
8.546519 0.537505 46.122153 255 255 255
11.586084 -5.452923 84.796803 255 255 255
36.070992 -16.179708 127.028532 255 255 255
0.828014 -5.356637 87.407864 255 255 255
30.529731 -7.829637 128.361097 255 255 255
8.831520 0.407234 48.901636 255 255 255
32.370417 -8.903013 127.915901 255 255 255
1.772089 -7.049905 92.532279 255 255 255
25.487711 -8.157863 113.532928 255 255 255
2.827666 -8.666114 92.278472 255 255 255
0.761925 -5.535265 89.958584 255 255 255
26.275559 -8.424935 113.341107 255 255 255
11.534437 -5.837515 87.343951 255 255 255
1.243963 -6.151801 92.659130 255 255 255
4.399918 -8.120451 91.896011 255 255 255
-2.900160 0.246618 66.900160 255 255 255
-3.250009 0.245360 66.985138 255 255 255
9.487550 -9.565426 117.418374 255 255 255
2.471092 -6.867388 92.362332 255 255 255
-1.428687 -6.059761 79.930002 255 255 255
9.068728 -8.604528 124.043360 255 255 255
0.381293 -5.926440 88.042559 255 255 255
-1.214053 -5.898170 88.495252 255 255 255
9.686936 -5.904650 87.617029 255 255 255
10.449954 -6.330377 89.992606 255 255 255
43.372939 -12.471894 127.802068 255 255 255
6.229778 -5.897405 108.000847 255 255 255
2.061117 -6.407925 103.585856 255 255 255
11.027401 -5.215593 89.814666 255 255 255
-3.547804 -4.866596 87.223359 255 255 255
14.229950 -8.283418 136.025671 255 255 255
7.512147 -8.003961 111.753041 255 255 255
10.475953 -5.330558 88.887960 255 255 255
8.122565 -9.268173 114.711776 255 255 255
0.587326 -4.341779 103.978518 255 255 255
0.185814 -5.113201 90.305254 255 255 255
43.205859 -12.903095 148.032938 255 255 255
-0.297522 -5.284197 86.305571 255 255 255
6.937353 -9.092883 115.046159 255 255 255
-0.156648 -3.848589 104.183618 255 255 255
10.889288 -5.843155 89.861744 255 255 255
2.180475 -6.110036 103.548232 255 255 255
-4.319419 -4.994558 89.365803 255 255 255
0.056990 -5.187826 88.125408 255 255 255
36.091219 -13.098870 129.877783 255 255 255
12.361472 -8.142306 136.554515 255 255 255
40.350587 -9.097734 143.992968 255 255 255
9.728337 -5.670861 114.210733 255 255 255
5.667879 -9.127475 108.200658 255 255 255
36.325884 -11.050999 129.785506 255 255 255
34.894173 -9.297604 130.170133 255 255 255
34.794537 -8.971833 130.194349 255 255 255
0.749634 -5.671327 89.681749 255 255 255
9.531818 -5.876042 87.190344 255 255 255
9.342941 -5.872695 87.243939 255 255 255
7.871732 -8.777108 113.175331 255 255 255
9.540184 -5.238000 87.179980 255 255 255
11.883388 0.541684 66.788301 255 255 255
7.619103 -8.232624 113.240256 255 255 255
2.156378 -6.937110 106.768325 255 255 255
11.018864 -5.206441 89.816976 255 255 255
7.625002 -7.782723 113.232949 255 255 255
11.004706 -6.286206 89.834514 255 255 255
10.231955 -5.786506 90.047704 255 255 255
8.333363 -5.657975 104.998169 255 255 255
8.500383 -11.006492 124.234829 255 255 255
-3.855002 -5.048771 88.433861 255 255 255
-1.476773 -6.171895 90.320343 255 255 255
0.171048 -5.075118 87.290901 255 255 255
10.642898 -6.710973 120.985792 255 255 255
9.991553 -8.224875 123.776543 255 255 255
40.220552 -14.760959 132.089155 255 255 255
40.727580 -15.714960 131.957113 255 255 255
5.401049 -8.537487 105.866937 255 255 255
0.275361 -4.996540 85.104502 255 255 255
6.208056 -10.187685 113.665679 255 255 255
4.950781 -8.915229 105.999533 255 255 255
-1.923899 -6.776892 91.647440 255 255 255
-4.674701 -6.760528 92.333029 255 255 255
5.803129 -11.136292 114.715157 255 255 255
-1.903932 -6.718250 87.012381 255 255 255
-1.141699 -7.389074 91.451208 255 255 255
0.516641 -7.603628 82.702718 255 255 255
0.483385 -6.672436 86.417422 255 255 255
7.170743 -10.280412 114.376312 255 255 255
38.312817 -17.265402 123.268131 255 255 255
6.113092 -13.158768 131.302441 255 255 255
7.377009 -10.821649 114.323648 255 255 255
0.097134 -7.655149 82.807233 255 255 255
-0.796682 -6.544834 86.736837 255 255 255
31.919981 -13.042288 124.871160 255 255 255
7.064622 -10.495785 114.402258 255 255 255
-0.570071 -7.566184 86.677885 255 255 255
-0.131788 -6.662758 88.293802 255 255 255
23.627823 -9.622302 110.276435 255 255 255
-1.262182 -7.161055 83.147148 255 255 255
17.944552 -1.466787 65.871931 255 255 255
10.723361 -5.772126 88.497976 255 255 255
59.330881 -14.910787 101.366283 255 255 255
-0.002669 -8.016449 84.220382 255 255 255
0.031047 -6.724757 89.175903 255 255 255
-0.785209 -5.562740 89.382030 255 255 255
11.067087 -7.047981 93.039776 255 255 255
7.499105 -10.358161 117.072719 255 255 255
-3.954890 -0.540435 63.938319 255 255 255
1.558490 -6.510483 79.976231 255 255 255
2.363878 -6.613001 83.633858 255 255 255
2.946470 -7.359253 88.447851 255 255 255
-0.870492 -7.259402 89.399340 255 255 255
17.065725 -1.270570 65.099181 255 255 255
-0.196834 -7.263428 89.231564 255 255 255
5.919743 -11.563791 117.463522 255 255 255
0.391138 -7.883772 84.122457 255 255 255
23.402859 -1.677586 113.129021 255 255 255
25.661240 -1.917370 135.717019 255 255 255
-1.426266 -7.873633 96.151103 255 255 255
24.982992 -2.090647 89.582874 255 255 255
9.341027 -14.420571 139.755902 255 255 255
-0.193989 -6.800579 89.231931 255 255 255
26.882348 -11.013432 112.240166 255 255 255
1.412851 -8.692147 91.232515 255 255 255
22.867280 -3.564430 113.258111 255 255 255
-1.062793 -6.734881 80.628909 255 255 255
22.081548 -3.559777 113.454672 255 255 255
-1.690067 -6.637374 89.605039 255 255 255
1.243406 -7.753840 83.910358 255 255 255
-0.342745 -6.645405 89.269365 255 255 255
11.152691 -7.318455 93.017487 255 255 255
11.676653 -7.321572 92.886898 255 255 255
-1.972193 -5.062879 105.554245 255 255 255
24.230567 -0.777997 89.066946 255 255 255
8.978620 -8.872935 124.072310 255 255 255
9.446662 -5.941931 87.685729 255 255 255
10.204745 -7.814647 123.710865 255 255 255
10.406671 -5.875865 87.412278 255 255 255
7.693531 -8.026267 114.818066 255 255 255
9.628056 -5.434572 85.410502 255 255 255
10.365154 -6.193872 90.014978 255 255 255
9.900324 -4.869955 87.543478 255 255 255
10.106037 -6.144280 90.087942 255 255 255
5.743669 -3.903084 115.320170 255 255 255
7.170931 -8.411599 107.764859 255 255 255
7.982250 -8.648535 114.743865 255 255 255
7.978205 -8.957039 114.748876 255 255 255
10.242379 -5.651689 90.043056 255 255 255
-1.140862 -5.976611 88.475449 255 255 255
4.543671 -10.516202 115.743736 255 255 255
7.382566 -9.100772 114.919826 255 255 255
-0.023332 -5.505059 86.230471 255 255 255
5.925817 -9.267048 108.129156 255 255 255
2.291181 -6.472003 103.521325 255 255 255
10.714380 -5.975057 89.913065 255 255 255
42.175878 -12.209834 148.316754 255 255 255
-0.408956 -5.858231 86.344402 255 255 255
10.208285 -7.544706 123.706481 255 255 255
42.960309 -11.818728 148.089094 255 255 255
2.498437 -8.275702 103.485049 255 255 255
6.186859 -4.065225 115.196343 255 255 255
36.113870 -11.371247 129.849723 255 255 255
5.663781 -9.996043 115.419134 255 255 255
0.646863 -4.580921 86.028580 255 255 255
3.190818 -8.579912 104.311387 255 255 255
8.757979 -4.790684 83.097270 255 255 255
7.954781 -9.048617 113.155383 255 255 255
37.379687 -13.495597 132.880065 255 255 255
9.445744 -5.236326 87.206778 255 255 255
7.788721 -8.505666 113.195744 255 255 255
10.704383 -5.416872 89.908917 255 255 255
0.639510 -5.668428 87.165295 255 255 255
10.446799 -5.250305 89.979980 255 255 255
7.621462 -8.052664 113.237333 255 255 255
10.484584 -6.330990 89.982779 255 255 255
-5.836607 0.456067 108.945621 255 255 255
6.514955 -6.593062 113.533525 255 255 255
6.346523 -6.230048 113.576574 255 255 255
0.689284 -5.174303 87.144974 255 255 255
3.168916 -8.960798 106.506118 255 255 255
0.250378 -5.129022 107.286956 255 255 255
0.984607 -5.764545 87.068497 255 255 255
0.346546 -4.898225 87.238849 255 255 255
0.421317 -5.799564 87.228899 255 255 255
14.718931 -8.233959 139.249405 255 255 255
9.559041 -5.566985 112.656218 255 255 255
-0.350570 -3.563597 101.432589 255 255 255
45.047631 -13.091321 130.696395 255 255 255
3.393546 -8.810490 106.440446 255 255 255
6.901791 -10.109977 113.467699 255 255 255
1.765691 -7.739174 87.638815 255 255 255
11.560437 -6.544718 94.846835 255 255 255
2.080732 -7.633047 87.560548 255 255 255
-4.092084 -5.976312 89.102893 255 255 255
-5.035198 -5.970688 89.337833 255 255 255
16.917872 -1.316587 64.584710 255 255 255
22.797933 -8.123773 108.119890 255 255 255
7.071390 -9.290272 112.036836 255 255 255
8.302822 -7.857571 111.733271 255 255 255
-1.263343 -6.101142 88.397628 255 255 255
2.082060 -7.417051 87.560719 255 255 255
35.317670 -11.222661 137.147162 255 255 255
0.041205 -5.265738 89.404803 255 255 255
0.723736 -6.760975 87.900878 255 255 255
11.422808 -7.623914 94.878626 255 255 255
7.069177 -9.650266 112.036550 255 255 255
8.841108 -13.765281 143.740412 255 255 255
-0.745345 -7.076225 88.266153 255 255 255
-0.221383 -7.079343 88.135564 255 255 255
21.186868 -2.238620 82.811602 255 255 255
35.833828 -12.575912 137.016803 255 255 255
15.903128 -3.330522 93.772386 255 255 255
4.737340 -8.394179 96.543157 255 255 255
6.888969 -10.549165 112.079058 255 255 255
7.074709 -8.750282 112.037264 255 255 255
-0.744018 -6.860230 88.266324 255 255 255
-1.579702 -6.423252 88.475608 255 255 255
5.142447 -10.538820 112.514661 255 255 255
18.009054 -3.067098 98.607085 255 255 255
0.082768 -7.025377 89.667682 255 255 255
22.632588 -3.604901 124.248525 255 255 255
5.807864 -12.954963 128.420307 255 255 255
5.396340 -9.112168 101.736352 255 255 255
-0.619720 -6.588434 86.751762 255 255 255
29.915240 -12.288432 122.414351 255 255 255
21.988155 -2.295607 84.219574 255 255 255
-0.701079 -6.555874 103.262104 255 255 255
28.603345 -12.550499 122.739707 255 255 255
30.699176 -12.562967 122.217358 255 255 255
26.789706 -9.299776 123.200239 255 255 255
-2.280373 -7.506805 130.449204 255 255 255
29.669851 -9.586915 122.481786 255 255 255
27.835662 -9.575906 122.937943 255 255 255
-1.748602 -6.609458 90.124934 255 255 255
9.759195 -9.468467 127.444163 255 255 255
-1.597332 -5.920538 103.351507 255 255 255
-1.063414 -4.711117 89.728101 255 255 255
8.339429 -5.122658 90.635421 255 255 255
8.278674 -5.089809 90.651996 255 255 255
7.923167 -5.285083 89.437666 255 255 255
44.201564 -15.704090 137.649758 255 255 255
7.519592 -7.238927 126.509184 255 255 255
5.289522 -8.289472 112.655320 255 255 255
31.718649 -12.173934 127.665986 255 255 255
3.198606 -6.855155 118.824039 255 255 255
-5.277287 -6.499865 107.460383 255 255 255
4.877722 -8.942035 112.784093 255 255 255
12.492083 -7.577392 146.469601 255 255 255
32.865607 -2.913167 160.791638 255 255 255
11.071804 -7.574871 133.421808 255 255 255
22.070759 -1.395555 93.983036 255 255 255
-1.517127 -5.043775 100.725883 255 255 255
3.448204 -2.481244 127.571889 255 255 255
22.280759 -0.527095 93.907310 255 255 255
36.661176 -11.681547 139.707842 255 255 255
5.164973 -9.067163 112.705163 255 255 255
40.103654 -13.583864 125.319861 255 255 255
9.766590 -8.091458 133.800826 255 255 255
-2.336224 -5.472609 106.608903 255 255 255
0.212242 -6.717844 102.854445 255 255 255
7.387168 -5.518515 90.912302 255 255 255
39.661783 -10.594014 159.012816 255 255 255
-2.145574 -5.328764 106.552257 255 255 255
10.472983 -6.934219 133.579221 255 255 255
-0.744967 -4.969704 102.541308 255 255 255
-1.212883 -6.378313 100.664851 255 255 255
40.254102 -15.525457 138.763366 255 255 255
-5.513455 -6.495638 107.527129 255 255 255
0.076581 -7.210365 102.902078 255 255 255
12.318694 -8.333503 149.895474 255 255 255
23.106627 -0.518995 129.884002 255 255 255
-2.454535 -5.563876 107.323409 255 255 255
-1.148669 -6.273289 100.174486 255 255 255
23.104109 -0.734927 129.888769 255 255 255
21.774119 -1.382236 93.596428 255 255 255
13.104279 -7.807575 149.662781 255 255 255
5.010757 -9.556019 115.960129 255 255 255
33.836470 -11.300994 115.842225 255 255 255
-1.411201 -5.222585 107.021783 255 255 255
3.189324 -6.592303 116.419874 255 255 255
0.238584 -5.024081 89.818774 255 255 255
4.357163 -8.904710 106.167977 255 255 255
-0.125822 -5.114048 85.219902 255 255 255
7.907086 -8.723767 113.164861 255 255 255
9.705055 -5.470224 87.702206 255 255 255
25.980088 -1.339040 91.925518 255 255 255
10.264849 -6.246611 91.445315 255 255 255
25.076967 -0.852127 122.203404 255 255 255
7.603913 -8.070353 113.242538 255 255 255
10.987932 -5.584440 91.231870 255 255 255
9.467911 -5.946028 87.775507 255 255 255
7.798938 -9.045821 113.199367 255 255 255
9.475777 -5.346159 87.765763 255 255 255
9.527197 -5.827077 87.757182 255 255 255
-5.516038 0.373742 107.521058 255 255 255
-4.060606 0.041873 100.439199 255 255 255
7.806016 -8.505940 113.190598 255 255 255
4.410367 -8.622272 104.814691 255 255 255
6.479607 -6.646412 113.543993 255 255 255
39.878990 -11.068301 141.481232 255 255 255
-1.775430 -4.912626 106.525062 255 255 255
31.791621 -9.794983 106.395294 255 255 255
44.314513 -16.186965 140.285711 255 255 255
-5.434169 -4.955912 95.887418 255 255 255
5.479011 -3.712656 113.791653 255 255 255
7.922659 -7.536022 113.145569 255 255 255
9.254773 -8.941908 126.797507 255 255 255
11.085120 -8.029325 126.266300 255 255 255
9.930430 -5.894246 87.643659 255 255 255
34.396780 -13.167438 119.710197 255 255 255
12.654646 -8.347679 138.188881 255 255 255
-1.596327 -4.429525 129.822144 255 255 255
10.404684 -4.942615 87.496920 255 255 255
10.729993 -5.444867 91.303373 255 255 255
49.705389 -14.482469 138.733469 255 255 255
41.039576 -15.049109 141.202801 255 255 255
2.096599 -6.781248 105.448708 255 255 255
14.278153 -8.814623 148.723154 255 255 255
-3.704609 -6.695940 153.803383 255 255 255
0.393533 -4.591042 105.904926 255 255 255
16.173232 -9.568214 148.194423 255 255 255
-0.503021 -4.749336 90.592148 255 255 255
5.184885 -10.295556 113.957590 255 255 255
1.914018 -7.498046 105.509698 255 255 255
0.365926 -3.400791 101.227080 255 255 255
5.507855 -9.373269 112.613889 255 255 255
-5.917603 -4.300280 91.093913 255 255 255
0.006570 -7.134370 105.977192 255 255 255
5.344455 -8.530431 112.644300 255 255 255
7.533701 -7.527908 124.815182 255 255 255
-1.493955 -4.482536 103.295258 255 255 255
4.044639 -6.107416 112.966601 255 255 255
4.307416 -8.331890 112.934010 255 255 255
9.445861 -10.330588 147.383240 255 255 255
5.235289 -7.988532 112.665016 255 255 255
4.455741 -5.514834 112.839152 255 255 255
11.329490 -7.759464 133.352360 255 255 255
4.949437 -7.743442 112.741298 255 255 255
-5.297697 -4.406856 89.959820 255 255 255
4.418421 -8.091860 118.502102 255 255 255
3.084601 -9.209914 113.296498 255 255 255
37.379762 -12.450329 139.518947 255 255 255
-4.462304 -5.483647 107.210699 255 255 255
-0.657901 -7.062234 103.107123 255 255 255
-1.511261 -5.967074 103.328027 255 255 255
11.148959 -8.386169 133.415208 255 255 255
-0.255113 -5.944558 102.972168 255 255 255
-0.788962 -6.482016 106.190046 255 255 255
39.162649 -12.577125 125.567224 255 255 255
10.207954 -7.379430 133.662571 255 255 255
-4.452860 -5.689454 104.155160 255 255 255
1.779158 -8.264279 109.164920 255 255 255
-1.205033 -5.702582 103.236412 255 255 255
42.918525 -9.842380 158.077187 255 255 255
-1.349177 -4.706003 89.808863 255 255 255
-0.681908 -5.404043 106.139516 255 255 255
10.887077 -8.561464 133.492601 255 255 255
38.566975 -11.666557 125.718679 255 255 255
5.337463 -9.130244 112.657540 255 255 255
-0.452034 -5.948102 106.084686 255 255 255
-0.866743 -4.916717 103.125936 255 255 255
4.958254 -8.228338 109.946006 255 255 255
8.354107 -8.894094 134.215567 255 255 255
11.536192 -8.589472 150.121694 255 255 255
8.357883 -8.570195 134.208417 255 255 255
9.513521 -7.510988 133.861536 255 255 255
7.297033 -6.956446 123.270175 255 255 255
8.360400 -8.354262 134.203651 255 255 255
7.759342 -5.185152 91.083308 255 255 255
5.461502 -9.101306 115.824225 255 255 255
-6.311035 -4.429043 92.048256 255 255 255
-10.606514 -4.853990 95.686839 255 255 255
10.015645 -5.682306 89.841067 255 255 255
-4.352804 -5.040389 89.742840 255 255 255
-3.898315 -5.048442 89.613875 255 255 255
27.123362 -8.122416 120.339088 255 255 255
10.688486 -5.308486 89.645147 255 255 255
8.037735 -9.320923 115.470362 255 255 255
1.861605 -7.533117 105.525021 255 255 255
-3.903429 0.078077 99.282031 255 255 255
0.439619 -5.488971 98.118499 255 255 255
8.663012 -8.584412 121.770742 255 255 255
10.644897 -5.697355 88.735529 255 255 255
29.415935 -10.752180 115.904456 255 255 255
18.394474 -0.593552 70.252781 255 255 255
-0.759319 -5.561360 108.190707 255 255 255
-3.784326 -4.689939 88.186901 255 255 255
-3.984082 -5.348141 92.885620 255 255 255
2.073115 -6.381915 97.665682 255 255 255
10.062270 -7.529196 121.360169 255 255 255
8.468664 -10.201031 121.846488 255 255 255
9.866990 -5.593592 88.955299 255 255 255
-0.346753 -3.813646 108.051667 255 255 255
-10.475589 -5.143109 94.726514 255 255 255
40.795143 -11.625975 145.120172 255 255 255
0.422314 -5.488650 98.123294 255 255 255
-0.721511 -3.765642 117.888269 255 255 255
21.699306 -1.303194 85.541283 255 255 255
0.154966 -5.172556 107.926201 255 255 255
13.137844 -7.762888 130.470838 255 255 255
0.829352 -6.143872 98.015907 255 255 255
-3.627824 -4.075556 88.134736 255 255 255
27.524107 -7.952603 100.188883 255 255 255
26.851904 -8.186717 116.600474 255 255 255
-3.720844 -5.082807 92.807583 255 255 255
41.820379 -12.724319 144.844211 255 255 255
8.475742 -9.661148 121.837719 255 255 255
9.711307 -7.883015 121.464583 255 255 255
36.521702 -0.750134 146.197591 255 255 255
10.219165 -5.149826 88.849733 255 255 255
10.651976 -5.157475 88.726760 255 255 255
18.223179 -0.455512 70.299776 255 255 255
1.042781 -5.715648 97.949936 255 255 255
2.289372 -5.737753 97.596320 255 255 255
6.119389 -5.953257 106.242195 255 255 255
-0.894497 -5.963990 108.234314 255 255 255
11.278992 -7.190783 121.010725 255 255 255
12.872228 -9.670201 136.808222 255 255 255
1.619396 0.755344 68.321675 255 255 255
1.817467 -7.759073 112.892500 255 255 255
10.652248 -5.139500 88.726617 255 255 255
-3.720597 -7.480934 114.461719 255 255 255
0.088444 -7.548432 113.380872 255 255 255
7.533387 -7.680358 111.268305 255 255 255
10.445899 -5.027841 88.783818 255 255 255
2.280213 -5.627188 99.219296 255 255 255
36.233545 -11.029134 130.190579 255 255 255
4.904376 -3.183826 138.988734 255 255 255
25.103748 -1.911505 79.176149 255 255 255
18.041549 -0.434296 70.351011 255 255 255
18.989747 -0.472576 70.935788 255 255 255
28.770151 -7.569493 124.894550 255 255 255
-1.770404 -5.876927 117.749429 255 255 255
26.233553 -1.461580 92.364990 255 255 255
11.055936 -9.502907 137.320920 255 255 255
9.105789 -6.628207 110.808602 255 255 255
12.873884 -9.535121 136.805062 255 255 255
16.307365 -9.583724 142.160428 255 255 255
2.387264 -6.416478 105.849040 255 255 255
13.429659 -7.833878 133.345362 255 255 255
26.540180 -1.916524 101.523784 255 255 255
13.291750 -8.759993 133.408957 255 255 255
8.433562 -8.409145 117.475037 255 255 255
16.050347 -9.314662 142.246145 255 255 255
-0.800623 -1.638009 125.173572 255 255 255
14.519647 -7.598604 132.959213 255 255 255
7.883748 -8.578448 113.930527 255 255 255
14.387497 -9.218917 133.032203 255 255 255
1.295209 -6.851470 113.096091 255 255 255
14.953851 -7.288522 132.801831 255 255 255
7.152196 -4.789481 122.436184 255 255 255
38.229514 -10.855801 134.492825 255 255 255
17.970690 -9.450151 155.288656 255 255 255
14.516448 -7.212938 132.953994 255 255 255
5.506565 -7.205746 113.429377 255 255 255
25.167306 -1.123618 99.731727 255 255 255
-3.945363 -6.202161 110.025603 255 255 255
7.073041 -5.783413 114.168900 255 255 255
-4.681579 -6.081597 108.322713 255 255 255
1.231671 -6.348585 106.253212 255 255 255
25.314103 -1.312331 129.070029 255 255 255
7.376675 -4.548708 122.353496 255 255 255
7.927950 -9.144177 119.378781 255 255 255
13.795548 -8.063986 133.220821 255 255 255
7.395636 -6.145047 117.801831 255 255 255
1.163133 -6.276835 106.276070 255 255 255
59.923018 -20.448680 161.326687 255 255 255
33.994640 -12.234756 126.205189 255 255 255
38.003103 -14.276275 134.628473 255 255 255
13.171054 -8.591339 131.815820 255 255 255
16.653007 -8.250625 142.017285 255 255 255
32.307030 -11.853107 125.158097 255 255 255
-3.120205 -6.095414 108.918149 255 255 255
5.628312 -8.353642 120.172177 255 255 255
34.435652 -1.485565 152.810697 255 255 255
1.459460 -5.314238 107.299142 255 255 255
1.719838 -5.988249 107.218905 255 255 255
1.974616 -5.987345 107.129534 255 255 255
16.050498 -9.332659 142.246388 255 255 255
13.596431 -8.679821 131.668087 255 255 255
16.658382 -8.898543 142.026054 255 255 255
7.928037 -9.155402 119.378802 255 255 255
5.024825 -4.711146 120.324073 255 255 255
38.280623 -10.873618 134.475193 255 255 255
37.300715 -13.299726 126.107638 255 255 255
4.299085 -6.920703 116.112025 255 255 255
5.465098 -8.792830 115.817416 255 255 255
-4.968933 -6.356868 106.083375 255 255 255
5.100270 -8.246357 115.910387 255 255 255
5.706650 -7.177319 115.718737 255 255 255
4.363424 -7.770360 116.109946 255 255 255
5.105665 -7.783643 115.900173 255 255 255
34.184563 -13.135970 126.986300 255 255 255
23.600802 -1.251012 96.133854 255 255 255
-0.464304 -6.057803 103.033486 255 255 255
0.041324 -5.509210 99.823424 255 255 255
-4.461205 -5.662307 104.157012 255 255 255
-0.271288 -6.502856 106.723273 255 255 255
-1.974198 -6.300754 103.465282 255 255 255
0.238491 -7.351894 106.594968 255 255 255
-1.138484 -5.937748 103.221996 255 255 255
0.203584 -6.717689 102.856892 255 255 255
6.954285 0.416228 74.660751 255 255 255
-1.187294 -5.666903 103.230722 255 255 255
21.824070 -8.279285 112.591423 255 255 255
-4.777351 -6.034610 104.253457 255 255 255
3.876979 -6.251667 110.214718 255 255 255
-0.497302 -6.078840 106.779162 255 255 255
37.739848 -12.028118 142.771747 255 255 255
40.103488 -13.565741 125.318878 255 255 255
-0.820449 -5.403496 103.121976 255 255 255
-0.628156 -7.396378 106.841027 255 255 255
-0.816044 -5.025613 103.113635 255 255 255
40.164860 -15.715974 142.153748 255 255 255
4.270589 -5.921246 110.097140 255 255 255
4.495689 -9.161157 116.098632 255 255 255
6.601834 -6.807664 115.458498 255 255 255
-2.624928 -5.320851 107.367060 255 255 255
12.038400 -10.083256 150.007104 255 255 255
2.191149 -9.428424 116.755561 255 255 255
4.021821 -4.971904 110.149839 255 255 255
10.664875 -7.262758 128.549642 255 255 255
-2.017974 -5.598042 103.464476 255 255 255
38.767978 -12.991423 142.498916 255 255 255
7.444932 -7.643022 123.241216 255 255 255
-2.211669 -5.370967 104.916054 255 255 255
-1.102865 -4.985852 104.595080 255 255 255
5.379052 -8.862822 114.508673 255 255 255
40.540710 -12.387264 151.325613 255 255 255
5.044218 -7.866957 114.584887 255 255 255
-0.406551 -6.550655 104.427431 255 255 255
7.131933 -7.745409 123.331704 255 255 255
5.298751 -8.321441 114.521231 255 255 255
23.855657 -0.652117 132.476443 255 255 255
-4.886249 -6.335493 105.690910 255 255 255
-5.079525 -6.197055 105.743043 255 255 255
5.042121 -8.046901 114.588859 255 255 255
22.198271 -1.419466 94.043148 255 255 255
32.679745 -12.688793 130.205588 255 255 255
4.354602 -7.584620 114.774551 255 255 255
4.255420 -8.662732 114.822856 255 255 255
26.432153 -10.466559 117.921662 255 255 255
5.382199 -8.592906 114.502715 255 255 255
-1.372090 -5.790951 104.686374 255 255 255
6.721841 -10.469481 137.509262 255 255 255
-0.268005 -5.810710 104.374337 255 255 255
14.253711 -8.677168 158.694045 255 255 255
-1.904466 -6.554942 112.280892 255 255 255
-0.010573 -6.017784 104.305291 255 255 255
11.432542 -7.584045 136.121792 255 255 255
7.565937 -6.887810 122.325578 255 255 255
6.349784 -7.945771 114.458115 255 255 255
33.105323 -3.349028 149.880332 255 255 255
15.103918 -7.827937 132.758069 255 255 255
14.742508 -8.137761 132.889917 255 255 255
13.141043 -8.143444 133.451675 255 255 255
13.501173 -7.679354 133.317739 255 255 255
7.773378 -8.681462 117.711054 255 255 255
14.677393 -9.063617 132.927977 255 255 255
13.512691 -9.067750 133.336529 255 255 255
0.645796 -6.403580 105.747201 255 255 255
1.806311 -6.297454 108.009947 255 255 255
35.360257 -10.390241 133.280094 255 255 255
8.826949 -8.743156 121.913824 255 255 255
7.827469 -9.059233 117.698295 255 255 255
43.374400 -12.707681 146.432648 255 255 255
36.870696 -10.860623 134.969468 255 255 255
-3.363012 -6.200094 109.821328 255 255 255
16.549452 -8.053012 142.050355 255 255 255
13.801947 -8.835318 133.231259 255 255 255
12.929060 -8.915551 133.538716 255 255 255
36.763366 -12.533473 125.239055 255 255 255
-0.522452 -6.382853 108.828094 255 255 255
33.556597 -12.082040 126.356308 255 255 255
13.515250 -9.376283 133.340704 255 255 255
33.995920 -12.389022 126.207276 255 255 255
12.418223 -8.763092 133.715370 255 255 255
13.154480 -9.763240 133.473595 255 255 255
1.329402 -5.844287 106.210644 255 255 255
-2.097434 -6.360399 107.420988 255 255 255
5.626072 -7.825165 118.450076 255 255 255
-3.442107 -7.131656 112.124897 255 255 255
5.486021 -7.546053 115.447033 255 255 255
8.685093 -8.275301 119.098817 255 255 255
7.929716 -9.357877 119.381542 255 255 255
28.519311 -1.297183 137.741213 255 255 255
16.160471 -10.304175 142.223793 255 255 255
14.526922 -8.226592 131.334536 255 255 255
13.258999 -8.951023 131.791133 255 255 255
-1.241572 -1.626317 128.593163 255 255 255
8.206641 -7.896363 114.498620 255 255 255
12.911797 -8.052312 131.897883 255 255 255
-0.358615 -6.265599 107.952419 255 255 255
16.660174 -9.114516 142.028976 255 255 255
5.229554 -4.296819 116.202348 255 255 255
13.247801 -7.601190 131.772865 255 255 255
1.574811 -6.580887 109.876817 255 255 255
26.369099 -2.271490 101.110090 255 255 255
10.504024 -6.551180 124.690334 255 255 255
12.310289 -8.367237 143.671280 255 255 255
9.533002 -7.636968 135.287059 255 255 255
-1.113481 -5.515405 102.940112 255 255 255
12.652470 -8.733322 143.581330 255 255 255
-0.675510 -6.367140 108.391688 255 255 255
4.407193 -7.531589 114.758841 255 255 255
-2.455807 -6.031327 103.329619 255 255 255
36.177165 -11.674172 136.980988 255 255 255
4.312086 -6.773943 114.771361 255 255 255
9.200309 -7.182398 131.556834 255 255 255
6.860007 -6.718954 115.995277 255 255 255
-0.700705 -0.852610 101.809154 255 255 255
22.851930 -1.364101 95.154297 255 255 255
-5.351213 -6.247474 109.712519 255 255 255
9.014563 -8.258994 131.629922 255 255 255
31.856746 -4.111523 157.520299 255 255 255
3.404840 -2.202579 116.888148 255 255 255
6.736421 -6.176817 116.020247 255 255 255
31.346200 -3.292436 157.647948 255 255 255
20.319272 -0.864072 91.228733 255 255 255
-2.305573 -4.783485 102.337141 255 255 255
-2.749585 -5.970059 108.971107 255 255 255
29.958052 -9.713730 125.731446 255 255 255
10.942724 -6.313702 131.047814 255 255 255
9.886772 -7.734626 131.372963 255 255 255
10.759045 -7.210323 131.116621 255 255 255
-1.503881 -6.100341 108.621072 255 255 255
27.541777 -8.950558 126.400820 255 255 255
9.550913 -6.828739 131.451306 255 255 255
9.031345 -6.819441 131.598147 255 255 255
-5.604556 -5.444368 103.282979 255 255 255
3.223030 -6.653866 117.023163 255 255 255
-3.475721 -5.849075 109.174300 255 255 255
-1.600243 -5.450684 108.636141 255 255 255
-1.013993 -5.436536 101.983940 255 255 255
-1.701163 -5.018576 104.078110 255 255 255
38.125731 -1.253993 155.691363 255 255 255
41.912347 -10.770750 154.798585 255 255 255
27.522897 -10.570063 126.436567 255 255 255
29.607219 -10.067333 125.836721 255 255 255
33.733439 -9.662913 140.877424 255 255 255
20.962669 -0.812508 117.299460 255 255 255
-1.440241 -4.852956 102.093514 255 255 255
-0.815511 -4.756157 101.915005 255 255 255
3.906057 -7.706522 122.254733 255 255 255
3.944171 -5.781052 108.695099 255 255 255
7.200850 -7.405523 121.316798 255 255 255
8.413175 -7.427219 120.974169 255 255 255
9.813402 -6.192428 120.555005 255 255 255
35.538953 -10.775007 140.386429 255 255 255
33.461065 -10.737932 140.974677 255 255 255
11.908288 -9.542250 147.050236 255 255 255
21.830521 -5.400299 144.165409 255 255 255
-7.171770 -6.968328 125.375421 255 255 255
9.122714 -6.000066 120.746606 255 255 255
9.648576 -5.469532 120.587850 255 255 255
7.561913 -6.152115 121.191100 255 255 255
31.749558 -1.528214 141.286053 255 255 255
-3.719466 -5.643903 110.861003 255 255 255
3.217494 -7.334262 122.442800 255 255 255
-2.063735 -4.841808 102.269806 255 255 255
9.283319 -7.082828 120.721490 255 255 255
21.936754 -1.657147 90.013761 255 255 255
-3.506922 -5.539822 115.303021 255 255 255
23.621304 -1.368005 96.288156 255 255 255
8.569743 -7.511355 134.444056 255 255 255
19.551285 -2.983013 117.738687 255 255 255
3.430711 -2.559899 135.805219 255 255 255
22.657838 -2.634018 130.366163 255 255 255
26.263578 -5.398302 129.398482 255 255 255
22.939448 -0.749264 130.250405 255 255 255
25.277701 -0.791103 129.590255 255 255 255
28.839150 -7.334155 128.705360 255 255 255
24.014127 -1.105062 96.172067 255 255 255
10.641718 -8.088379 133.868609 255 255 255
11.180206 -6.478213 133.686359 255 255 255
-3.924357 0.992561 92.777377 255 255 255
31.527702 -1.847261 105.320562 255 255 255
-0.798453 -0.930987 103.189515 255 255 255
5.791395 0.587450 83.601179 255 255 255
23.326741 -1.472526 83.927403 255 255 255
26.605562 -1.691384 95.449636 255 255 255
3.483572 -0.265493 113.225991 255 255 255
24.194831 -1.580452 84.869166 255 255 255
26.358485 -0.607071 95.499366 255 255 255
